x,y,z
-46.25331746889243,43.14170943987399,9.228564010460095
-2.8161002184418322,-5.678434261141362,8.595812816383493
-44.95823694079297,-34.678943357755045,9.803497837464189
33.787608052164515,-33.18809073695799,6.595536586161945
-14.144127293165809,3.2445291362355633,4.461617336033868
-47.91279136166292,7.691803167932477,1.8556806217862787
-32.32862517010149,46.55799365581727,6.586034435009381
-48.51306027669795,-15.240510238867067,7.6491182616747855
5.320950136667449,40.99157955026233,5.947118357940794
10.789568914517965,-40.06004435148518,5.96654881707416
18.804098652709428,-4.806433991811886,0.7100895126818652
20.261773396990762,34.82519533265449,8.312400638571397
-31.698599557528773,-37.60681887644254,4.57964580543397
-48.39464894921102,38.94491718619496,2.963974430352503
-12.834932645838471,-16.02206667359132,1.1597890659014964
-26.205391892831255,29.009915885621098,5.706619615381285
-37.25161593469952,-32.60520713698215,3.2020946450538803
-18.62033528095106,26.811990143432624,1.7265883678218519
-3.32272573959893,48.90346556352725,1.1224564857783126
13.346008172018422,36.861700375756186,8.720626297283783
-30.134530948176252,16.645739978769086,3.7132513359465182
-0.6003463356994772,40.007971883591324,7.426386079113859
14.233672780130618,-13.448695284438415,0.10970793737677509
-28.140056366195754,-47.94571188024831,2.1330551268023434
12.906619985944225,-17.166858457125365,6.080017679577256
7.8837847674134025,-46.87803615381573,9.244318862457114
-3.5644375601632774,41.830250123485214,4.7162394644158825
13.533638179919848,-29.529807874022197,2.754912879773915
29.217222182555304,-14.706039479840214,7.959658549684711
13.365413943334524,-18.3162530057686,2.9439217377612756
-4.045216611243788,45.636876619437245,5.260472790622685
-19.870342042622347,-17.812175490657765,3.664795946591185
16.344190852780272,-44.983947285658786,7.942542156563461
-12.267308306502514,-43.06973572356585,5.555705939504651
-11.207071678243906,9.906934412694646,9.011184381134013
-44.295707458939184,-30.67633180547683,0.4750925983634102
-14.599793940522012,-3.352367126899715,1.8353280780792502
-25.290689778832043,21.33027479776473,4.786147741634634
-10.57862632143111,31.15238799107371,0.4633490862263179
-19.487102080796337,38.835001412119624,1.788247456956874
-39.85964036818505,-45.37016572953976,9.728667291092027
1.1474544176953714,-23.341697878989052,5.41008647773337
27.474124265045887,-37.26338014128101,6.999722058507808
22.575917144281462,-21.280408703750975,4.783144676599182
36.97193054208114,-39.26251643996481,9.589318332800064
-31.479064568836723,22.692089303566192,1.3927571109958603
-5.157335008902223,14.381772172617275,7.966132736633972
-27.112090785778754,19.713582221444682,9.684665032392937
-19.762518865506816,-17.145401829111016,8.558856148099974
-32.97980933749128,8.906701972564065,5.623023818944103
-25.17126054936717,-22.94180926611382,8.705923931021957
-36.72487351925715,44.728852078154375,3.0260379901263734
-20.70988891541252,-29.113343849090313,4.719347350543895
25.355558341724233,-27.105436486222455,7.513786847884971
26.540807946351023,49.774599227154425,2.2921518334590916
-30.49401424332484,20.92500208989162,4.687461957622711
-20.52848636129084,-17.823612921412703,0.41427791934287694
-4.1280641566916,-32.86456447151194,7.980151557061327
19.86859403182369,-40.13861530676199,8.519518848462504
-29.420694239260413,-2.1181344309496453,8.426092004107542
13.50861619552591,12.665679198137092,9.192006352523238
1.1753649570987008,-14.917592674101456,1.5743311648268488
-48.68912481886536,-30.295332015329045,1.5352446227880923
-43.99082998870618,-1.8075057193678319,3.595502030344404
-28.939966322787193,-45.330903574573966,4.115629022305802
35.73958039134453,-24.750438996749658,3.6697300737257557
-24.776461099991863,-23.080634148999167,2.689955933660552
8.311127804125043,-40.49169581295129,9.54518974092863
21.641510376677758,-43.01348994639564,5.630371553836678
0.8924730863787289,-6.574768544252272,7.392677941082745
17.063560537678285,-7.927561544762604,8.469921346428785
-25.02050772254274,-42.537350704572894,0.5755860453924655
22.44156425939103,-1.132612327601656,9.425976878396947
11.500589827150485,19.715781058330805,2.431074372503843
-36.44311491129076,-27.489797621734656,1.3077437633256606
31.318970240225426,41.720795323390846,5.394379310791141
-7.515023460313671,2.3798231552627485,6.149650133536867
43.853728782328844,48.16261487654259,6.644921462794294
49.909882984943295,-45.216271944464225,2.6486882527277533
10.044453502862929,-17.01875561702675,8.54652825849407
44.602841405174715,-39.30094905407957,7.3197818953856695
44.20582775893553,5.187517237663052,3.1297944473843597
5.643335156976612,-11.25951419658049,0.7262331844672898
-34.590421921956825,32.6731278839796,7.59515122393702
-48.4719488648945,-45.490424454483644,3.772904506248884
-46.26231115993759,-7.899662414745201,8.558270818935778
-14.96793459161475,17.61461280797873,2.074468043483159
7.190657391536789,-10.243661802991454,4.924028501656714
26.93726956938103,35.67943700634976,1.069553165531829
1.5105424882389116,29.402855534380677,1.0222788483600809
14.890398304547219,-40.838479404625815,9.911513676008436
-41.62536488905981,-0.7038814259630826,4.134795106445985
-38.640186166232084,40.3046514942869,8.853558938804628
30.15365212656269,44.7720061612968,6.105858366464394
11.52943694335795,-5.121876701788764,4.662977987807382
8.878467327657567,-25.487737998061068,3.448622626861485
-22.662145883347428,16.696517154609893,0.1764322453344369
-33.00625841583668,-45.417731162420125,3.43469971995075
25.341852465081587,-17.23432120547148,3.0145311681009024
43.28547328474781,-38.20553322219753,3.6282275800045727
26.405494599980628,15.386616485602701,0.04888579932544879
7.079900329311293,9.318666006641905,5.208484709328021
-30.10425792761491,21.74070049487065,5.699317714110686
-13.271963156904455,-21.426899518364163,7.798242547464583
19.985002740219954,49.64173774123098,2.817949462084197
18.084357131717113,-13.896920979723184,8.844745001140398
-12.570424799902405,-9.355486785524327,9.185937271045615
-1.0344062482544913,49.06666122095061,8.150930241325518
28.817223592703385,-24.59601223649387,5.434816867335522
12.613084240653436,-11.852975314010664,7.713530138712636
14.731811700919778,-15.31611561333942,9.04279615381587
-43.58563234328796,26.22903322524695,1.897810842469887
5.3912602822957965,30.007562514267377,8.636127090731485
-26.346610769376046,-16.87267216183239,6.061404054304232
-45.43872395064342,-48.183117135797374,5.792381048127101
-17.44528296844755,-18.38525657478027,5.454539792015392
15.714871176464683,-35.69146961509384,0.013797288674111119
21.295768443548226,36.933927921825756,6.18242281045135
13.534870368335397,46.65710981146623,2.4034564391167104
42.24149988617518,-10.024244545925733,3.140175066170492
-38.2880409435208,-40.678086696114846,8.586000854349882
-7.879392579162079,10.652284201929461,1.0284255990497704
-6.985766519925242,-44.1944149573625,6.566207436930675
-43.672416589822284,-5.835801554820783,0.8057906761650679
37.72766125958093,37.41300372115629,9.829907487180487
-7.292701565833404,18.200014027797707,9.556413450097072
-21.97662201660544,38.82155797776309,9.33358378578737
-17.52695943174639,-1.7730277854864838,5.891252516795735
17.191500796300915,-34.414534252397544,7.013819378277191
-43.61813617084583,-7.878885324702679,6.183165273868408
29.250794812578988,-41.66904136547065,2.210865024910401
18.139833401451355,-43.566524092261936,6.870858375298832
-6.913522232906274,-34.64450921704653,1.7718118447727227
14.57777853516805,33.83131247177286,9.299540354500524
0.5744196317145835,8.92403546134998,6.24524687092555
45.88550206928082,18.284683399047097,7.4551194097513065
-9.906302277287779,-9.864458521256516,4.459625681912515
42.372303762811285,4.6749924378056775,3.9603727451155404
0.2457732720149508,-0.05467177895400965,8.057026167720638
-19.828180786098127,-29.318337512995786,4.127425256575002
48.668061087628345,23.065458023824732,7.819815620233893
5.785638362617803,-27.905904121310222,4.696694068731614
22.56042095113348,14.943794762343032,6.751028416565595
25.55396939976167,-26.513870507312298,9.97561688403453
3.392937639908631,31.153287282967753,6.200905388155091
-47.80725812128198,10.621997342650381,0.8602288006673908
-32.480218739606684,-31.301850029941402,2.294674025586433
19.52236853638449,-12.496514397017187,7.520577094814319
39.215270274944004,-28.141720029262306,0.9505941983224764
43.71048363494904,29.748217136801287,0.1399314620694514
43.24147557540347,25.657315047074505,8.883083150896498
48.016448721045705,-38.90404604216404,9.829946428085252
-43.603838847144615,-29.215232469701036,2.730913081793609
-29.57607277397073,-8.595979132212129,1.569403134130244
48.05661954785727,-39.694561361190374,5.734639482603267
43.132461928481135,31.789134136824586,2.90079475099021
-26.15039668753599,20.249696168843116,5.271404342860069
-41.28053418964922,36.27918713477905,1.4860151207700933
4.572127683947578,0.5185613008969128,5.516127742314744
-27.311285907252337,-25.065026810870428,9.332074651980658
-19.823458501427417,-18.70501878081672,1.1994658883190978
47.80383713363547,1.7245585774053538,7.866662427746338
10.479213573307199,-0.33907307954789445,0.36842239583731784
26.407367995519664,21.045346398578488,8.230019382719968
23.202217688087202,38.67759176747835,3.9895590531006544
-14.447148369648623,27.336139981865273,8.14219871240399
-37.567778163036394,-24.13474353311712,6.1349425227976395
-28.4750504365905,37.225459722571586,9.177174473118018
-46.16794185638264,-26.86813592834231,0.1731226400458996
27.337712687284963,-19.919197274162237,3.374514416596802
27.375360776581502,38.65558066399582,1.136222188121624
24.255327024314937,8.482259688949654,6.834833905392994
15.436317017377704,1.0378938983107133,8.110239184337294
-17.849819692230525,-16.059934639273607,9.29620845358643
15.598408637358006,-33.31828769790911,5.511698168525015
-25.457299117908182,39.53241612944902,7.923347718540947
-23.79989135160936,4.471348922380336,8.468013478885513
-7.930149107951557,49.849263510923436,2.0161431814290287
10.426183308627557,-7.123912006355582,6.56713287967783
1.5024203998177725,1.1017579663161001,5.96449957241335
-4.358689502662585,22.224937194261415,5.787724355767531
-3.7508301723925612,24.94168504584063,0.7307162282402035
-19.823839136842224,45.95201155650646,9.417175268781689
36.78895233239227,-29.11887296701905,1.2439976400949049
33.76143045996554,8.111694698284566,4.982865885453199
16.319815975195766,-5.588167180011169,8.03810899803801
-19.332349035224983,14.971802081764707,4.1454194244162075
10.540605830758842,38.94642085279854,0.2732677458796562
-13.948948234735568,-11.893197951174493,3.4378217420149104
38.9008730184685,-34.12965562618126,3.8501758073046743
-23.760131963285136,-26.78139320572528,6.974131954311927
-22.338554285060063,27.532488630925073,8.805563362930535
-46.02827258839116,24.466712251855938,3.5642058839215593
-15.789417402993223,22.274092219453692,1.925298417185437
42.895264472197965,-31.258866343548817,7.57608571094409
6.750261454236764,26.87739667600583,7.427965679683214
45.058419753621735,-0.5422256750011627,1.6469587905587701
23.191874196559425,-3.0211244127579704,3.2568625396882736
-24.323329722145694,-28.77140821449379,4.016044128570329
21.926956496960088,-27.792636220957178,9.05805753090305
-35.33306306695896,-12.067168070021815,4.198144505701482
-38.645368986173054,-49.500203075877344,8.454589077287261
1.9639050118841794,-30.068511961725086,0.3080697085631756
5.67987937299749,-1.780892466380621,7.450537938123773
23.576667582385042,-29.713594230031315,8.08443293203704
-16.97732290463525,14.909026639489795,0.5858876090709264
9.689615210653812,-33.860274870177605,8.10033682193641
-43.290797266091275,-46.234023128100766,2.070233879645765
19.343893487548797,-25.463584366152993,6.32103809124339
-22.71657819791042,-18.548367779906062,8.176442777170394
-38.73604173737731,-8.462225042506844,6.29870963925028
15.359006159478312,12.421500347347333,2.248391358415623
18.82574775048124,25.48907038722453,6.467360754482706
23.40018232053073,-28.58373688830156,5.796867681321335
-20.785516103677736,45.529362204464476,7.321055180180177
-21.921263838263684,-46.21455438257202,8.18856785232703
1.470127659071693,-2.3551137848155577,1.8439164183570012
-11.697128416425699,-8.771986939489715,7.985372274204482
37.66667159025117,-29.67050521709096,8.131197066500786
22.47457845741215,-29.854394007754735,5.4118075461495065
-5.502528674106458,4.176954220412476,7.644811253497182
49.156549693491414,-36.950089221703124,2.7706161994220766
22.48420969159646,-46.00580367598085,1.0429613527451576
-49.3655192192528,18.53883800414819,5.6197357797687975
-24.703939878511527,27.522508919337298,2.467852091432643
-39.235095801946805,28.971051253672258,5.6798604867122044
48.376191563549014,-9.088294138019606,8.688245981630146
17.574202781073737,-12.72429097621626,1.6401275761262701
36.820853345802945,7.179085656249562,6.906039873650222
-23.99405931816341,-39.65168621537357,7.841976289520946
37.29251455949412,12.677543931802745,0.7657809177738562
14.574639300543097,18.93381661662093,3.188946401607379
20.564135347263488,-33.44241476899131,4.200898863241237
4.184552979210046,11.375744910352822,3.3688126132544016
8.302111186076068,-9.215413383291036,5.239642408347694
11.159465859159745,-5.5135071508746165,3.1559199067556487
9.357484391388567,23.146704299802394,7.7526000781255044
-46.76594612090307,-2.134982387548611,4.3686843875610855
-30.947529183737476,-12.746543443887902,7.553182515999458
1.3250507340880944,-43.240217942552476,5.897605061735546
-46.843534969282054,-5.4000184880064666,9.419328369587875
-3.3211602382122933,12.652029253379162,8.876367849304064
20.99595240783583,-38.03316878301901,9.57717874455624
-3.8058859258442226,-28.621859937636295,6.374487769044412
-0.23349844487640325,-7.941431906321647,3.407267078773828
-0.8846028423850498,-39.16335159673861,0.41960565279423934
-23.614854275655162,9.339075445050646,5.011061308070968
-0.2000031792183634,-40.696386678307164,1.546877930448608
-22.017712141857448,-48.1455620210294,3.4260049824933123
-29.38057963441294,-32.368490205416975,3.852244486484855
-48.4587670747297,27.793767389189654,6.802935307916309
-19.523112101296658,-29.03497033949012,9.210899764854059
-7.862896795713169,9.343994393969766,7.2472939176414855
-23.36634797401348,41.29122762052856,6.9289625818668865
3.156437203076287,8.248768996441527,4.141509671919323
-9.753382895814653,7.285281572038372,6.858224966533828
-34.32968679935195,-29.542316663124456,4.005938434466636
36.778547061115816,47.433295606077905,0.4984828199375102
10.021783376968038,41.81333161727973,4.0580102396315265
28.272342734507788,-44.63142810206611,6.089935499127806
32.12965358929442,3.5310221875239662,2.9744763581971623
-44.199057566959084,49.44596527999211,1.6202646916835484
-38.36761972525986,17.651955636636302,6.246496106417415
22.26756768861,29.374317213418138,5.501235948896762
-24.993131499083564,16.50460761099157,8.656380669091234
-27.906784536365038,35.02823428790069,7.68057726338616
-5.9252629174439875,-15.507698825734273,1.7064715713063883
-42.96537779644781,45.571720118812564,4.587135537074355
20.227551904056412,35.790713529919685,8.623542914874525
19.215753636581994,-15.829794246818096,2.936113262424007
-30.03552918407578,39.535870185234955,0.8088821064868745
41.70218186544929,-9.252788702489688,4.26684415322195
-43.86604479872549,-43.3463633294289,4.269302353381239
-4.802359674610798,38.22116441035271,8.328362461288627
45.85919541878448,41.69212569939637,7.420405360519967
1.5351554955782802,-22.018923711172043,6.330577076366785
-9.98123149550996,-23.667414921062925,8.42723818614211
15.7402109638696,42.98837288060527,4.3240512791865555
-12.567695737580465,-30.895546868609525,7.914145506481997
40.10050305007465,-17.32850200738536,6.069148031056559
48.150997515725464,11.104963621635342,9.700423800710702
3.430798502799945,-7.317641319782332,9.74396894601893
-10.591521519818933,16.16474026890087,1.318069142833772
-16.018386080114887,-17.236514139932254,2.0331241103503253
-45.488140970054936,-8.375511450622533,1.0475455482763918
-5.795905590675467,-46.57562752235842,1.6323051742217898
-3.5701056579495614,-14.345191612498539,9.197060705417776
-37.30116333961452,-24.371609516085524,3.926001859869661
30.711705066558082,-13.063673020640273,9.102947908036445
-31.2296788254416,23.283367641197515,2.419456520297063
-32.344042801248264,-32.13400368228358,0.9180757556701669
-32.001962151528396,-38.80562650522113,5.733027307913253
-6.897596400298525,-27.89990316989931,4.079620655832539
24.416918379684986,47.51053819255135,2.5850883633015687
-3.825425811545813,10.50146199718155,5.833470458820433
36.652743369344606,47.79584152715002,2.3348156436176017
-38.46244934381483,-35.530013053524435,1.2635661539386267
-30.27793804230876,37.102426154623444,4.725217020118868
-23.20352141015797,-1.1718873368105989,2.750781108502834
24.023612897034837,-11.85942360601588,0.12280903782673991
-7.014733716051246,29.235668371437058,4.108850623216868
-14.730916260052531,-43.524716179690856,8.833014271711878
-48.957473810310326,-27.803440530569446,2.7663727645021376
44.795219558441175,42.77236357771979,7.10844716234247
45.52560740009278,26.809752843785688,9.882019822621196
-33.748784332700154,27.87144531708246,5.436093809683814
-28.44385420689701,-48.26353336182074,5.323197145973389
-14.196714369396524,-35.076590493502025,7.735834603841627
-38.596590337488266,33.223974505486765,5.980433302713136
19.383193601902533,-23.154273446995532,7.13861653106454
-13.683625379978103,1.1937919720307448,6.928168933420179
-9.898045309970449,2.7003111358881355,3.9741380587584874
20.466734400449468,-16.64079499917508,4.985042698646432
4.690359674556454,41.95527453547933,3.8800848775056473
-9.37131335770298,-19.115814503830087,4.653681362368985
-30.989535170445258,-29.74975273027519,6.962654020771066
-16.845593177281103,-39.29130282718543,6.024360440455421
-17.785650167443777,-44.46802693024863,1.2946597188411313
-39.1733108974136,22.432477076064444,4.801883875136548
-8.536620885531555,-34.5483972099353,4.193176249519905
44.117007857390234,24.6273000359633,8.586589200583429
-12.781278969971808,18.807416873961586,6.708020239930928
7.122775646456439,12.387956304900783,0.6512621829170484
-30.148308909385648,5.707364265690337,8.317031920899003
12.022114058543046,45.26860880636026,1.0222840039331371
-45.37542129929275,46.65095672458405,4.592538267650107
42.90543014761836,-21.965303072800722,3.2319274536300826
19.165137561743123,18.533604454093165,7.494605097189661
25.32909111236097,7.053310466687357,6.045830741581502
-39.73463890483452,22.30174021876475,2.8607086923576484
-5.792756101847715,-45.88744640590038,9.49087056602403
-10.681185059157393,-24.000080934116717,9.903211728654753
3.881878557910781,-7.691276017812257,0.787014596960105
-10.105056923176228,6.992345888678152,4.263213851086488
-4.778659923862008,-0.04587954510769521,3.8871619447257233
36.04422286951005,33.67548686689537,9.785941196215783
28.628657473754444,-7.067552897571993,6.708587353631006
-45.153687292788746,-5.452490500780073,2.5617035693840817
-49.75804724210504,-22.590140793607837,7.046579709590724
14.270413519048006,-16.664511857022227,7.013799696420335
18.61701338866405,10.312349536534157,3.846877966402328
-43.609796262406896,6.901266250159686,9.988381465012079
-10.699072944786948,40.555126473718815,8.966648377105704
-27.77879428242097,15.82792902180205,4.361200302002258
20.476886867585264,24.393300110705823,2.364338559948489
-43.07978188086309,2.7375008474429308,0.835625009981753
9.496716583449185,6.583435989099549,7.747295065364572
-26.916670735735337,44.02181980803316,4.845290723265336
48.12498038772249,17.12571017297195,1.0963122204668052
-25.178563797657127,-9.36252394803332,1.1151900652349223
22.39395856933716,41.52118335330631,8.704418480537246
39.120063647113525,44.42782323830204,0.37784731071405786
-33.55737753479748,35.974973740996106,9.164774829459093
14.140413704056925,18.264485794366834,1.6217946443717235
2.2007479371472414,44.2458350122493,9.633936987833225
30.478366700909575,2.271632014676193,8.198180140143428
0.4641216288516574,-12.233103485393926,5.501235333736943
1.6011784945145848,24.474836565687525,2.8012331035851554
-36.71299673784418,47.60148907276404,2.027388437784671
4.189875865415246,49.52816256678612,8.199826428119357
9.917904722554326,-39.93197446482224,1.2601790635055332
-9.263666109068701,-44.73097368496355,5.006550379189959
6.2711758180943065,28.420594302494408,9.53333911993385
-44.40706799701128,8.936652810392623,0.1968215085866909
-18.598678011700752,-30.84279616435246,4.056882947544864
15.069256879723397,-40.05377786751501,4.2657795962256975
26.17158607262479,-49.56083565322569,5.413170255131762
-0.967608361941096,-31.857216918525467,7.366317949544989
41.90466075142905,40.00298774876771,5.505277315373673
23.072084692751645,27.644654060954494,0.7472127453040289
-15.488914696709955,-37.582544976780916,4.042212892385523
-37.75894407013713,-7.391154882981596,7.1867673423408025
35.38113066801749,26.03986257304433,3.33827025801115
46.92824123349318,-46.554738511267814,0.9430638542664938
-16.77320207587931,31.936664543893684,8.461786615143856
-36.24498604754781,-46.77121170522638,4.5395694256122034
-38.677298523139115,7.929882577067417,4.2287057210433385
-33.933899325667824,38.049345388765005,1.1043884079469768
-15.577577485541106,2.792992253515955,4.347306634430128
43.923443152108916,-14.918973868920645,7.760725106509963
26.23116543148207,2.1125936210981564,3.460585118923658
-12.158173949533847,15.667903266875499,3.29547568721046
7.622772772781808,-38.363084431279326,3.598087286012773
40.37412672853449,18.61970770802469,1.4676205555071609
22.455752788741407,-22.10537867814776,9.329028358833842
11.828315053935448,35.04782523966898,2.4231777322231185
0.5031874844086275,18.5517926975742,0.3955455420650955
9.602322698523658,19.85336143028718,9.607505013474208
5.4998957648300575,-25.155742976844376,4.988594750958314
-20.992585840138478,41.82018550691646,9.124541640326143
5.269126895399133,-41.866232540235174,5.446935338705857
-9.486676576177707,-9.487275888417038,5.31977603674744
27.947484101155567,43.29426079222215,1.932827990518473
-37.899190274292025,-7.006351676341261,0.5101582501510205
-13.241998735219738,-19.75235639826427,8.936141526536895
-19.787868681577294,47.78006600700408,7.463599220498843
-42.231461705501374,-33.63387391353558,3.0087957845678384
10.575451710346805,28.880695106114814,3.698314587593714
33.54388935089948,5.77614054468615,8.478592840999585
-0.020134704581309393,-34.227139380016666,9.557202661520082
-11.834438440537731,49.265700633255065,8.109785703355973
41.32076544789204,42.627105295319254,5.804472296935579
-5.3518931852040055,-43.76347423511812,1.289648571899198
45.24846582980949,-35.84914941221786,8.976910313314686
28.758395763160422,33.743586902659715,9.062669297265778
-26.557021074190956,-9.447327714708074,8.287942747371313
-14.583111942992048,-4.231492846410468,7.386257384216598
27.383776575076524,46.475998729842914,9.661821417763882
-11.633634750546065,26.758442273303743,4.493243636039193
-49.37766769158509,14.240919623883116,5.02818462695552
-34.01638640324567,-17.31056851427445,5.940174738135656
15.12572119477366,-40.84258106322309,2.8411231087815336
8.895232855499799,18.558067358732856,8.82929303161154
5.562940113543213,31.857029879942573,5.368586537038654
32.22868182828624,35.72788121850044,6.162866915995472
-10.49914045357987,14.821996142585704,5.084272268296064
3.298573069900847,-48.01271928571273,8.639677140639513
31.074500424759094,37.352950774859366,0.08425020376654935
-46.09425647583297,-16.031903038119168,2.019455267062975
46.62054588512467,21.003116855379375,6.151473385013537
46.79187786920423,-27.212228778704606,7.766169910100254
-11.91487452464068,42.601570836253856,5.823961006790964
-6.751392160323668,-41.604950735955185,0.9729142824291792
30.49534909228187,8.236062350993159,5.456711823651496
-37.702184739587686,35.29060770161249,8.528314760088755
44.031366630235965,-3.7104798784487585,3.935787309229679
49.258979182229254,35.206938473835564,3.6491043666425096
24.29030878870769,-5.290440156304911,6.55828466735636
26.726400157454904,-6.025177600177258,9.700738589210388
12.844227177446989,-20.10306010643924,0.427939676302479
-10.807584883109321,45.7430401653546,5.730140120570809
21.412687950295165,18.849833050250936,9.172669406529405
-25.91263834840689,-34.614854100083434,0.05968561253567373
30.768694932406632,1.4335504689939356,9.207239815749363
30.226906610016187,-1.4390356989810087,5.76065472387592
15.634191946227887,-9.721310264917314,5.0996521728774
-43.45112237949158,33.56613298596548,3.7935693709832696
45.39043533524277,18.61238305660848,3.8322316026025804
-18.506990359733667,-18.597046913904293,1.9676975142771114
23.889815087660722,35.34280112384177,1.9553024336949598
-45.7996507527656,20.27943172938872,0.33496420699791085
-48.91239823133703,-40.43544358099531,1.0437228928166054
-3.5855937930893944,41.805350915462924,9.92973947123388
-45.661927738055766,49.766548437499026,0.7366815623167577
-3.7789937976726122,-21.621547396900574,8.51641987538854
48.89123379882061,29.446536692955775,1.4791817493638704
34.5875191781448,24.88199028257128,1.1305573142864012
28.437738727452214,8.106501956616711,5.010087379523101
42.551888933713215,1.9003134532324495,4.986915617180471
-28.25592457164594,26.900246375807484,6.885274202694043
-49.44777325459152,33.902319964746994,6.635254588320586
-3.464283501749378,-42.4018922955406,6.385820300761187
-3.1813425188912063,-23.124482632062428,7.214953192544803
46.32070547489187,-38.34244166457938,7.003113500439157
31.79226141452733,-33.972851132470616,0.06359093567986362
45.71653037333655,8.708324775810006,3.677990408768114
1.6447933651842916,18.573989656954353,4.027026976468582
-22.62623331237884,16.680160648621396,6.88449748383848
-15.349208622565193,-4.08553929889689,7.977628632703736
-9.080680274116368,-47.32353238582926,8.13619995499079
46.15461073428472,-3.5743126569253576,3.8664647116087494
-8.40980240969487,-15.11721164582999,0.6042823127265995
1.844870969951792,11.261580155469176,2.880360383594253
-47.67660103711275,-8.55834096537906,9.682473645470717
0.8818552052429212,26.21512421391651,0.7886842909209557
47.175930605103275,45.682022944024965,5.903915764317653
-18.236806323297692,28.14664118227286,7.65291806382013
48.563656851132336,-20.15436770605159,7.233989942098161
46.0674280705404,49.93341470958896,5.800997797546298
6.493095110537503,-23.4453668054475,6.973138255823939
42.91055069064673,47.37690678359499,3.0113545844717926
-5.317259072498871,23.174709745938713,7.163787044198919
19.796152851196965,6.890753789144334,1.844004621378157
42.895956045061595,30.53910924695252,0.4433589339653865
43.26550806715326,-11.867891948040345,6.410493574303155
48.120776669951994,16.774027606240466,3.321282433621061
-16.02121073680557,-31.48241328448018,3.7691842338035473
45.36957638760765,36.073332672980825,0.33672035709724435
-42.98127455610595,17.622935165267975,3.1139816591602254
2.9032873571444497,47.20878128711017,7.788481447708352
-37.27986678872011,25.471415490029045,7.142892643079851
-36.958720417041626,-8.881677705687693,1.3187985186254203
-26.357318764597228,-38.77030065418361,6.914009379907194
-4.127758673295936,29.752433498859986,1.9128146740097063
4.093428287049214,18.220314774714183,4.37312674200472
15.86780621376397,-39.491767144331604,0.14313364856212818
-23.925743307177527,16.84200437818761,6.436230025878137
33.97518418464911,-17.995780526787264,7.215575104501593
6.3454039999052725,-37.946094830543444,5.4337455004295085
4.72995025109585,39.458303855273684,3.11850147080589
25.781825116670234,17.17812615877527,7.984442244644075
20.73892776889734,35.780910672261996,3.4212581389445273
47.591183994627656,-22.98097201162217,2.8558881761739507
41.267236965849804,-37.178695094193955,4.092704351749514
-20.157114950438316,17.761041581769533,1.7053770227546994
-19.60311918601062,49.24071690711817,7.902758858150082
-34.62461780258007,-16.105641465059875,2.145785199633765
-10.715722099665584,-21.145930823322278,2.3131267993478155
43.88262704886961,19.241653586475522,9.696966810720134
33.50064262664753,43.14599032035325,8.413377620482281
-29.129365511081694,-16.210255176438295,9.073584635227384
-22.491878736496673,-34.16929704511685,5.306655506379779
9.110548134298071,7.862286682742848,9.035451153690959
-9.55774723501245,7.221153242764842,8.336411882867608
-1.5170328857477386,24.779861297377593,9.638790997415143
8.715144769866981,48.88376997553078,7.592319537979777
20.929599116150285,21.494561433926833,6.137675363660299
22.165520141015094,-17.40456649685499,7.42632533074787
-30.36449351132492,41.9671777831191,0.8696942409534336
-24.608313545744842,-29.403202296644015,1.1982170006643555
26.70118664654653,-48.104799931822676,9.999775658982047
-5.5610607320132885,-29.823757785389983,6.079269811753727
13.65049215040689,-18.21234305061776,9.23594378205027
4.451953553020793,-37.61323333366027,6.4111237494729965
46.41605667495634,12.930908453426383,4.753034754133331
-22.428230824372807,-5.1748016650497135,8.49794055331696
-21.120357302404567,-26.241213213501492,5.4478465769246345
-45.54787755226074,-41.54850104401426,6.984548699860533
-48.28502810882218,49.016647529967344,9.245629151228055
-33.03443205264462,21.8108652857169,6.5319913812035635
19.512435108734593,-1.4566262151295533,1.324723853542873
19.061232301732204,-36.6786161553428,9.287220000429745
46.74300994894237,-41.440439251281745,2.8936234135824392
-32.316547993080235,-31.362900936949167,8.78371032455008
-40.05438211948626,-38.69291848798656,6.755278608215846
-29.921338459624092,37.064120865429985,5.857906723044639
-2.6163914828527766,-20.421149034810693,0.9427118846477989
-2.4834245579871563,7.161199625095534,8.184191561062551
9.42882476579198,-3.228199066381329,4.5235606494121585
-18.969202556892327,-21.462634305397078,1.8043699754848541
30.92993225730602,27.514474768380296,5.3754823818459405
44.933581075909686,-27.008971921442303,0.9237035849820008
-23.537267831719078,5.0749051808134595,9.0193271858798
-36.364508023518816,-7.737478622052549,2.0789369228587953
-40.5367733989724,26.47344803861222,3.3714528163230884
-34.99185812203939,25.15099251132689,0.715329688672508
-20.551104387986243,-38.23700233744795,7.015694380040687
10.154760973131381,28.501621159087634,5.2240529130976405
19.324769990439165,35.01462521975023,8.981078680967114
-10.98204933618446,-0.15617287289941828,9.522305630091038
27.634515434957493,-3.0016228957260225,2.2560692550991357
7.524294609920744,14.821458752809107,4.900610525879503
46.35402906951617,15.355525150995291,4.840958666285227
-48.01680565521651,35.097809070342024,2.8604370471061067
7.375470809339376,43.8535554386482,9.998265751828374
-42.5734918194809,37.37127576022728,1.7811989146383889
38.108337657363094,-19.8739893385001,9.51673079071744
-31.35905642620822,12.546444190860797,8.625325106559282
34.795454786176066,48.45721085170109,6.133217710068781
-40.54045112218601,22.657593769242098,4.643966443429237
-5.366700680862614,19.302641153131745,6.3069928184013335
-28.739377334455074,45.09803399955446,2.9875195872842566
31.581089041890593,-24.591046874769283,0.9438466752846253
-1.7825237398585898,-45.187526138888856,4.309974218504536
-17.85379404619308,-33.418105558128985,8.140941295938122
17.78705031798978,24.714952405730244,6.919112070767825
-14.226480010216271,-48.698950790886485,4.437610920077468
11.205880325364411,-17.203801765353433,2.859184061763622
-25.680638534393452,-47.16654770033393,2.5541242675493647
-48.91097882614539,-3.289268403886439,9.48908307184082
-22.262596504096564,-46.28035333902637,0.1206873267410169
-29.471065951423537,32.157374361944605,9.255431709031406
-2.0264935472553063,38.18744219666084,3.6169573801365673
16.46676510321805,34.214271821684434,3.132675508750858
-2.297304318609825,11.446208272548283,3.3285548077059723
24.35599729559972,43.576081442894406,4.476247835972124
-32.80411753875717,0.6548330141243639,6.761547581981164
-42.26431624318312,-40.95314925279138,1.108781957958619
49.47692611960761,-7.836131701911555,1.300621771140087
35.560789195269095,-4.779124645687119,0.22784339742066506
-49.37219897804903,-12.988968419708321,1.4292954315152162
37.22903948555671,-3.2023298974878074,7.741863006029056
-31.818016498223866,-36.17874751357462,2.518014440174028
-41.73172979457948,-36.59707349537342,3.06916353297411
11.597320148887569,22.95897186897527,1.7962507450229037
-22.04350108332439,3.2791861075773454,7.895772010602703
16.27710877044403,-19.52933067520891,7.5588630570066915
-42.14514381177612,19.261698359816663,7.164735768352223
-24.79196029958367,10.294991153593799,9.973014924545703
10.510218630278459,44.32882568950525,0.5347789813970827
43.082218525639334,43.565170453945086,9.11010323710631
-40.42955513588898,34.965178305789095,1.765519239557296
15.577995098031039,26.39970530356507,1.9530808777689734
-40.97213013159937,17.19202427636347,5.177399606564079
-49.533252479700586,-23.877928441482542,0.34395181606684866
30.38436556989714,-17.699923688882826,2.1032335312471027
-38.26164051834715,39.44054624020306,0.09056378374360241
11.428340271229011,-23.026576789073516,5.402235763612682
13.595265952605871,-18.811813517311784,2.683894405336961
-2.402925528677301,10.222632728528978,1.5724797688009107
-20.55249394150166,-10.435008766425334,7.180287742542287
-18.987676143195177,-6.758142374252927,4.395768833088934
-27.308893730177097,-39.627144169725845,6.859110237453551
-35.71004710550818,16.819553193561603,2.324136975601301
-35.60237214108041,-0.5440268365799241,0.6021166263470046
-49.07150171762993,-42.30883956902248,4.0014957602552865
41.75725321581628,31.220683543024535,3.8937955583094364
-24.00602534956352,-24.27865956484112,3.7508687660126014
-1.1914424568720463,-30.725251014174905,1.315278806110598
-17.273171850709822,5.899922093761326,6.99368645301975
-33.59178085320129,12.490864179190012,6.445127550850164
35.56519453909061,-29.29179187920411,4.24191467419882
36.20605661863446,44.02086447757863,9.630740033129689
20.066696409542843,-25.23868461317711,9.729450724323371
46.6165906924587,-30.648582679388227,7.296148351431778
43.76819574267088,-39.20115301848188,6.393658077137481
-15.979051580443318,22.249233919827986,5.117680669715464
27.25231975002326,14.808700194689692,2.4743071609962874
24.696584817130613,34.10504581869088,8.160525187423909
-49.356267353029224,-44.12114007800633,0.24609992794097701
14.027180477119089,-20.907000284657396,7.926457681953
26.196827922749094,-46.90413430094761,7.260500845009639
9.816298875806652,-24.7751722844331,2.277203008486348
12.9716748645994,-48.36393892050972,3.8078096298610085
23.399012406423864,25.93932209876384,7.8030261312353355
49.58827241850486,-36.07142855142904,3.6946204836871677
29.06234809674379,-21.020462300773225,7.829443559379899
-18.406567531500595,29.87491028806987,2.034416697875794
4.198445403863303,11.135886602675761,3.3999623917640234
22.38389918273333,-4.784915180479544,0.5924587704254058
-41.0892980593757,-44.046251403088945,7.55955174146704
-14.564580909630642,25.256741277678245,9.54534705097159
2.6022035796107303,17.267211682344723,3.672981686627248
30.221995631089058,35.98223643165447,3.557613298407528
-31.346510205908395,13.348742598086297,5.175723556323257
5.823219283204331,-11.843535278771867,6.702669825528524
39.17944750846709,35.28051006533069,0.6118095585149685
-48.69340576054212,4.763438762166871,1.8284674229318743
-36.72841867161174,1.4540398507141532,7.807640254131096
-11.448964931918937,-48.74611739389121,0.25204501640457844
-21.580222156685213,18.036145486866573,4.5430343337844
22.16586904279174,6.127399177674711,2.6687463766354624
-44.02103686142404,45.24447866519681,9.024811770843723
-42.70085008571489,44.859302809657635,0.3256678770497312
24.064045727646374,38.0329814514437,1.8797058448529447
-14.232188273191959,18.855769624996498,0.6531370352263499
36.57898641178002,14.656506676882401,2.9656483295896905
36.736256791789685,10.429067680482717,3.4549750794907053
28.694259940245402,43.56878493642739,8.820458538387289
-22.223944014643347,-32.535966938853264,9.701987605114834
24.251177866120656,7.089822097573247,2.366972862731793
3.7348387544464146,-28.1766304209358,9.651324357821258
-8.596012991061428,12.67319264751027,2.4936605976899893
22.678123799525125,38.73272585362878,5.445249089024314
-48.38028656966045,-14.5982220667643,2.6508344390024794
-25.716400999092293,-19.765785211578635,4.02120304061326
-25.207019454261214,21.55169837538044,9.465693475981187
-47.46943794049861,24.936560965538007,1.8831510444942112
-39.009785179211235,40.55842038602533,4.409936893959539
49.76012644296003,48.17777756240183,2.735941498346688
48.490361653117944,-37.4283546237305,1.8114910202450107
-46.49043404766088,-21.748452026387866,6.618763041333326
-28.885907733840988,-42.71041242037587,3.5532800288710242
47.273522663287366,32.679158278459695,4.031762633394078
45.339969031601115,-38.26106384975002,7.716014294864246
31.688552773420795,12.315260168313678,4.9585995342171625
-47.70597998302038,37.839615054431036,7.66136684079552
-30.415830035035164,-6.224456661344888,1.2286112243926706
-46.07138841374526,-24.282119866949802,9.701153864656234
16.717028616715496,-37.314256308447135,8.068367288192125
45.36225446588642,10.754248497996855,5.261233633769756
9.346452871322398,39.60852584414802,1.1872251390472044
34.97694095533123,-3.936816168670809,0.6865976956924691
49.20670961886381,-45.91706445692799,1.0786698038927112
-47.281956267818025,20.789943364186087,2.4376044922736173
36.44178277398524,43.57117926283564,5.112750439257654
-5.893582367570602,18.28787394028717,5.4662481448558085
28.62378622203734,18.50119790380151,7.446706155507093
38.51056878274086,42.97527146734761,4.064342953355238
-46.247536184555074,-1.6628740484685665,9.989318306372214
-30.142035862636174,6.9043609922634275,7.023786591418693
-10.223788028063531,-15.937063721798737,6.293700802354732
32.04662432390519,-3.006530584230248,8.386433956911139
35.38011570218413,-21.308605397617253,3.689710943368263
-9.759706086982803,23.300977026679845,1.008757210419462
-40.97820465884752,47.41093557589389,9.025009390492054
3.4065614085825615,-6.8501557770873305,5.629888926886499
-12.763827332402322,2.5381500353795943,2.5969846958636946
8.832178240610155,41.68489772753419,9.645454358427344
11.981883630975162,18.541341820948546,1.7087178013157134
0.3114228815743516,-49.773389459771856,1.446536980909059
15.420834979160361,14.446430261493418,2.313547322814088
-37.32404552611442,-39.93289853025422,3.4010735846491116
-18.90323088656488,-11.744741923226812,1.786137056650915
46.19005043056181,14.607196933892482,5.340083687799311
-35.39251751353283,-34.82949323125325,0.22709348556389508
21.02133461684585,-46.102879058565236,3.637401770782178
-33.87392535800097,-41.1152503403271,1.9010682037763482
9.196036631610774,-15.330950129307695,6.766508833799256
-25.041229823762766,-30.88651441504573,9.226399671207568
28.955791779230196,30.891518092408347,2.4301824808095285
2.57950893593776,-9.062481597845604,4.112926661416031
-28.190788919959374,-14.164270779701283,6.267209559432933
41.20647860133646,24.343522805377987,9.10602331994197
20.394686998448236,-24.675728693590028,2.338076491589669
-28.126884555505693,-21.190882893387386,5.64876187018239
1.6548578686375635,7.771398729905677,2.487031640817042
8.933525618524527,29.979323588770995,2.861616218848848
-15.902586737022176,5.099950865051362,6.3386404426117355
29.51080365654917,-13.03764001342602,8.474371764642717
38.25717938806996,36.707134673745074,4.570050345582109
-17.95510649070433,-6.493688551732809,4.379484645955653
40.347809272413,-47.7526088608622,5.7297307478948065
38.823066345851004,-6.678965775891001,7.333639578430918
-21.175513342693442,-49.39650215430979,0.1438510397209103
-28.222846991230245,-39.52962228616851,8.572501946155121
-28.67205011584374,-16.540659939705662,6.624131649804354
8.345319977807243,-8.379725699189656,5.874813335126305
48.03882064503827,12.70112292596847,8.55775431936288
26.89933181725462,33.86299277992006,9.080612540969971
-41.82457661556903,-25.010225526842877,1.2284091601763514
-27.49754235393501,-31.0621514833347,4.523879237217908
1.5339174709551173,-0.14317917330403418,5.491383127194236
-25.762223462727196,38.82799974129176,5.805548427192261
25.5316145674241,47.774680123508574,2.772097781837448
-48.58889969065869,-13.013104013988809,0.8578251699527195
-10.139514197575942,-32.49779973748611,0.6805773828179074
46.92043876468364,35.270064782962734,8.099991546432957
32.49550308821857,37.68269706768068,6.937834938006796
31.410704442285848,38.989694691854865,4.620868862312088
-32.0525973230139,-42.697088742480915,8.318354841177698
-6.05952697643508,12.108873109813779,1.7796127312688703
-3.8631307870456126,-25.96779947425063,4.7220673653206235
-37.525748682429494,-40.475086703341724,3.2776434810822144
-26.99890639393937,27.491963600757472,2.928406809788674
-39.70613425200137,27.34049942883601,6.270684154567205
-14.079880911505093,24.262294814961123,6.116943564280427
36.88501260946889,16.9949971094631,5.261740253729588
-43.269253180288956,-43.927170086965475,8.364267409743032
-35.16887745000929,-38.65795102754922,4.150794590906552
-17.385614511014055,-45.16850405159229,8.489489379088399
-25.498242383546778,-24.188686526296532,9.54119237768874
17.399361128051694,2.7442542915042694,2.13225926404169
21.645051619651227,-27.74035957321711,2.620436087350698
25.34760202894472,17.401691584923725,5.051419265357078
46.738693384895626,-49.470390850948576,3.114136162222997
-44.51005009385488,-2.7682765503290767,2.738295610359068
33.05546728000853,31.281770295204694,1.039740563116125
41.18908420891968,-40.2944060999297,6.272879388539648
-49.09988427242665,-32.20279694222545,2.627185254122162
-49.74691531206171,41.10813281349442,1.730311188241388
47.30445021157935,16.88955072778012,6.285528888887287
-6.997693668129102,0.4244310725011857,5.261971873145893
27.820396208273507,-48.9043333383462,4.7507460391775425
9.186626607052517,-49.3644529881803,3.7748249224639463
48.83307977741687,-8.21678832223872,3.9402424772236255
27.432011484729117,-13.730090220363067,4.238513186597679
18.05451315668809,-2.0949717249409403,2.610956646014324
34.97284215140418,-33.27386115436979,3.141576620562936
-37.29615988862403,-12.182090793840658,0.377545432547175
-37.25856858178162,10.07040042944535,5.593111801813516
2.8684890296288046,0.3746940944679835,8.432936333990238
3.2546488407939975,-32.391905270184516,4.563405003117115
-24.773905022831066,44.94607426655227,5.231442342573489
6.843730836935599,15.084070328888586,3.2643774737640943
-15.402321569486446,8.802717709332697,9.757973752512692
-40.41725934762387,-13.611147254611787,8.211846716720846
38.31551367130595,-17.22865353450038,0.0936314484416445
-15.112371925350523,-36.67846797278402,0.953011214133711
36.11527750879752,-26.845509074671458,1.337242563866936
4.172933826898706,41.972344927903464,4.454599764217483
-43.39290080990187,22.625204734848438,6.9931409223532555
-32.679810373428325,-40.23328291449923,0.553159473460324
-4.237457565900591,23.34762646489132,2.1609942614520703
14.476233987387047,25.871604728993603,7.868885037727731
20.762993110769727,-38.881394724570896,5.833331878086353
46.70090550782136,-0.23646263807381018,6.420092061869733
-25.137275510434677,39.07775988574319,8.609329111807515
-10.29017923886262,-40.4062816810323,0.8518235105036365
27.032805692406086,-1.8977040070318196,6.834831704042471
-41.58493399565711,-44.61697223887472,4.212807638708105
-25.223273418796488,-4.75403412767119,5.245749133779626
5.393055796997878,-12.465030023997258,4.6114472300802944
34.424975238825496,-46.64679581170318,9.322067276211417
-31.95897886664688,32.94990389098007,6.418390433958897
12.508343601309782,23.614976232827374,7.394977983515762
-16.022593651834704,29.390496539369977,2.266369284359344
-46.61721413367494,-14.510368702692944,7.117406290886202
-38.99149045833803,-28.48966329764513,5.418948341707397
1.6719745894533418,-10.899148898233612,0.28769235283538364
-33.5436426526068,-13.338441836228235,0.730811162264946
46.79058346218517,18.645559731161654,5.517025535497323
-12.850899349792059,-8.752718144380232,9.341010838056734
30.45643538282215,-39.043995972395194,6.660249495268116
35.9638639471049,47.42231576190359,7.120055523227322
22.953304015915933,-15.119843309996838,8.07552965769617
-36.41209900939025,28.099327309728764,4.285944803407275
-9.829689453310252,22.251334243352005,1.5446122580640431
33.851725878491706,2.860865529598911,1.8732022093009393
-22.171775718422225,-36.651361199617796,2.4218648909262965
0.7931382150995532,20.246012286017333,2.0175368935271787
-44.87309945588378,49.553079976133034,2.5515354532691847
29.288808510404664,-46.578491557164405,1.8361757252570976
-1.398817700385301,19.264969535792247,6.9453718537103875
35.25838828632811,20.32802017527399,6.028494643319365
26.775256196576933,-17.17410454971401,9.499420646017827
18.028453065325735,32.78003854932838,8.499509317575427
31.09496581794032,21.662987163911296,5.0683185812064195
-19.066071677567532,39.73139849110481,6.245207075549245
-42.68402350089805,12.816707305044936,2.0794953251610435
39.9692305075686,-47.824884194898296,2.3344413533749577
39.65319338520496,44.4425644665877,8.25010284837226
37.46681992214232,12.20895013234918,7.000095150014593
6.226432865893742,12.036350073114846,1.7029405447019674
-22.069674895014867,-46.6074991315366,3.4451457223172985
-28.647076619266464,-24.096242199608042,8.955339603987374
-19.76812788057023,-30.889740734883354,7.681653007437781
49.43532064717115,45.54596169817876,4.529375380209202
-2.6111292102197083,44.701617163789535,9.517366411185886
-46.94859321476097,-6.849669801366176,3.450150535010419
-16.36675096003909,-16.545233226340052,2.361085363124822
-22.372500457958456,-38.08632697551847,5.2481314466846865
-25.70362400333882,-24.349429832676073,5.9282774764520205
-13.656804744699656,37.24971065865536,5.044032661657862
-20.45434513298182,-14.86284604040501,5.137792704796138
7.6228324933944265,-21.23782473860856,4.49679252982289
32.44178383066932,45.17210286462763,9.179597637960313
-27.490551647178396,-32.74981824937595,1.2866930058024173
31.421198222727824,-27.210331527135157,9.65688057319045
24.73015846485677,47.587481620623706,9.708242589270476
38.196479488367544,-7.47763729648765,7.361344252077377
-10.118239187964484,32.25787910356395,9.964720285503589
-14.397378845043484,-11.11859487115521,1.3284771165078768
37.10610772312468,-41.59768512410935,6.784117347256613
-12.696263046764336,15.524971657731044,0.27044011542103785
-39.30747480860204,-27.540322399363472,4.926749262910325
36.90215431967053,12.32032262201038,8.63345744431376
14.324388844600108,5.288553771916824,2.014883232948177
-36.58205326246294,-32.06947720303253,0.09333251794492292
-35.534745933031346,48.52762222185093,0.8697868557019017
-4.711690822829894,-16.07726568801869,8.772351262132403
-40.09313919754276,15.640750997162584,0.24040438538287634
-36.2251188856215,25.77871653087263,5.6450946222206175
-22.62749090384023,23.106567290519976,1.5077215795086807
-8.68673230296423,-30.738267674857923,6.7891664390248
25.568789607998042,-12.300475575721315,0.8817951428902904
48.05941365124551,46.55032305706871,7.4397116633851965
-16.63988213881253,15.019292662590217,6.179976132477364
48.78796375349138,36.71402108622071,6.132480462264903
